ply
format ascii 1.0
comment Created by CloudCompare v2.11.1 (Anoia)
comment Created 8/14/20 7:28 PM
obj_info Generated by CloudCompare!
element vertex 714
property float x
property float y
property float z
property uchar red
property uchar green
property uchar blue
property float nx
property float ny
property float nz
end_header
-11.2304 -5.47242 8.56122 250 250 250 -0.896251 -0.443546 0.0013084 
31.4933 10.8754 -1.5 250 250 250 -0.000977516 -0.000977516 -0.999999 
24.7655 3.76989 12.2704 250 250 250 0.918022 0.384447 0.0971379 
18.0442 -3.41512 2 250 250 250 -0.000977516 -0.000977516 -0.999999 
0.908845 -7.13117 10 249 249 249 0.000977516 0.000977516 0.999999 
38.3118 -2.30076 10 250 250 250 0.000977516 0.000977516 0.999999 
29.5936 23.2682 3.56345 250 250 250 0.440405 0.897798 0.00130684 
23.8836 4.19446 18.4953 250 250 250 0.883366 0.457885 0.10003 
7.51283 -3.90507 18.8209 250 250 250 -0.898511 -0.427663 0.0989058 
25.9647 -18.751 -1.5 250 250 250 -0.000977516 -0.000977516 -0.999999 
8.78969 -12 3.25499 249 249 249 -0.000977516 -0.999999 -0.000977516 
43.5013 5.04906 3.55617 250 250 250 0.981019 0.193909 0.00114739 
22.5172 2.60632 37.5258 250 250 250 0.928069 0.359034 0.0989037 
-7.62296 -7.57152 0 250 250 250 -0.000977516 -0.000977516 -0.999999 
0.289443 2.40343 0 250 250 250 -0.000977516 -0.000977516 -0.999999 
8.1962 -5.43162 0 250 250 250 -0.000977516 -0.000977516 -0.999999 
13.6546 -7.81735 29.0781 250 250 250 -0.256154 -0.961541 0.0991147 
7.56145 -5.53899 11.2344 250 250 250 -0.808321 -0.5435 0.22633 
7.19686 1.1409 23.721 249 249 249 -0.986743 0.129118 0.0983189 
22.8968 7.46819 10.4021 250 250 250 0.470523 0.483731 0.737979 
29.0563 23.5152 5.47485 250 250 250 0.335625 0.941995 0.00124768 
25 17.7888 5.64163 250 250 250 -0.999999 -0.000977516 -0.000977516 
8.03722 -5.1472 17.2672 250 250 250 -0.828565 -0.550931 0.0997749 
11.4156 1.88178 0 250 250 250 0.00491636 0.000983272 -0.999987 
24.2948 -4.82915 11.8347 249 249 249 0.865641 -0.490388 0.10092 
23.0774 4.75537 22.6651 250 250 250 0.835169 0.540913 0.0995279 
14.9795 9.48915 14.8005 250 250 250 -0.0813979 0.991678 0.0997411 
-2.65097 12.2072 4.6795 250 250 250 -0.215818 0.976433 0.00116659 
-6.95978 -10.3788 0.840958 250 250 250 -0.552998 -0.832928 -0.0205831 
-7.05187 9.85868 0.0178442 249 249 249 -0.192203 0.312856 -0.93015 
31.7169 -22.0864 0.45039 250 250 250 0.526725 -0.850035 -0.00134712 
22.8054 2.3617 35.6259 249 249 249 0.943177 0.317046 0.0994913 
26.2274 2.80569 10.0895 250 250 250 0.327683 0.0888858 0.940597 
9.5855 -2.26808 44.3646 250 250 250 -0.933678 -0.343561 0.101047 
-2.83173 -12.165 4.9223 249 249 249 -0.226229 -0.974073 -0.00117217 
25 6.66741 -1.31521 250 250 250 -0.881404 0.0147124 -0.472133 
-1.13893 -2.14142 0 250 250 250 -0.000977516 -0.000977516 -0.999999 
-0.451022 10.1936 0 250 250 250 -0.000977516 -0.000977516 -0.999999 
43.1725 -6.49167 4.77926 250 250 250 0.968656 -0.248404 0.00118853 
25 -3.4126 1.21 250 250 250 -0.999999 -0.000977516 -0.000977516 
25.6772 -19.9807 10 249 249 249 0.000977516 0.000977516 0.999999 
20.1676 -4.77256 45.0239 250 250 250 0.676757 -0.729606 0.0983574 
6.56519 -1.64927 16.6713 250 250 250 -0.978968 -0.178106 0.0994937 
22.2082 0.127784 45.4514 250 250 250 0.99498 0.0162756 0.0987385 
6.80832 -6.72313 0 250 250 250 -0.000977516 -0.000977516 -0.999999 
6.13103 0.692039 13.5616 250 250 250 -0.992515 0.0716248 0.0989105 
-2.2529 12.2915 3.91122 250 250 250 -0.178186 0.983996 0.00113494 
26.6181 19.0633 10 250 250 250 0.000977516 0.000977516 0.999999 
31.3028 -4.38276 -1.5 250 250 250 -0.000977516 -0.000977516 -0.999999 
7.07914 1.21275 22.4664 250 250 250 -0.985307 0.137346 0.101517 
2.36367 2.86622 0 250 250 250 -0.000977516 -0.000977516 -0.999999 
4.91173 5.104 10 250 250 250 0.000977516 0.000977516 0.999999 
-5.45481 11.2376 5.27777 250 250 250 -0.44144 0.89729 0.00130991 
28.5138 23.664 -0.154868 250 250 250 0.173011 0.984919 -0.00113079 
13.2163 6.60814 39.2763 250 250 250 -0.359034 0.928069 0.0989037 
29.6552 -3.33015 -1.5 250 250 250 -0.000977516 -0.000977516 -0.999999 
15.4418 -8.91082 20.8525 250 250 250 -0.0341446 -0.994598 0.0980279 
-11.4934 -3.53407 0.00248026 249 249 249 -0.262446 -0.059019 -0.96314 
25.5482 -22.4378 5.2652 250 250 250 -0.814648 -0.579942 0.00409371 
13.6313 -5.76355 48.6567 250 250 250 -0.342791 -0.934272 0.0981322 
43.657 4.18795 5.83316 250 250 250 0.987081 0.160219 0.00112041 
19.8306 -8.85466 2 250 250 250 -0.000977516 -0.000977516 -0.999999 
22.9497 -2.66863 2 250 250 250 -0.000977516 -0.000977516 -0.999999 
22.1918 -5.48257 25.413 250 250 250 0.758574 -0.644128 0.0983065 
10.5465 5.70964 0 249 249 249 0.211789 0.117943 -0.970173 
12.4159 4.53266 53.811 250 250 250 -0.59253 0.79926 0.100453 
-4.28629 11.7409 8.18404 249 249 249 -0.341642 0.939829 0.00125144 
6.70445 -8.04502 10 250 250 250 0.000977516 0.000977516 0.999999 
32.2441 -19.9594 -1.5 250 250 250 -0.000977516 -0.000977516 -0.999999 
24.8071 -1.46851 2 250 250 250 -0.419787 0.0304578 -0.907111 
24.0398 -0.728916 26.8101 250 250 250 0.991018 -0.0886277 0.100138 
13.5501 -6.0139 2 250 250 250 -0.000977516 -0.000977516 -0.999999 
18.3356 -6.55906 39.5338 249 249 249 0.3623 -0.926783 0.0990559 
11.049 -6.79472 2 250 250 250 0.102243 -0.0815644 -0.99141 
39.9786 -13.8843 1.2422 250 250 250 0.844879 -0.534955 0.00134749 
27.316 13.3659 -1.5 250 250 250 -0.000977516 -0.000977516 -0.999999 
43.0173 -7.07268 -0.451715 249 249 249 0.961751 -0.273924 -0.00120671 
2.2545 -1.40425 10 250 250 250 0.000977516 0.000977516 0.999999 
40.1893 -12.8695 -1.5 250 250 250 0.265932 -0.0912133 -0.959667 
12.0555 -7.29629 28.2251 250 250 250 -0.450156 -0.887691 0.0967626 
43.8605 -2.67439 6.74362 250 250 250 0.994569 -0.10407 -0.00107289 
31.5038 19.3297 10 250 250 250 0.000977516 0.000977516 0.999999 
39.8761 -6.97774 10 250 250 250 0.000977516 0.000977516 0.999999 
-3.16597 -12.0871 7.4084 250 250 250 -0.248977 -0.968509 0.00119128 
11.4416 -12 9.48822 250 250 250 0.00740077 -0.99699 0.0771795 
20.1571 -8.95488 10.9139 250 250 250 0.406554 -0.827346 0.387571 
32.6234 19.104 10 250 250 250 0.000977516 0.000977516 0.999999 
25 1.06369 -0.234434 250 250 250 -0.999999 -0.000977516 -0.000977516 
25 -10.5821 0.318638 250 250 250 -0.999999 -0.000977516 -0.000977516 
40.2532 12.5346 10 250 250 250 0.131882 0.0735274 0.988535 
25 16.0802 1.75781 250 250 250 -0.999999 -0.000977516 -0.000977516 
-7.49164 8.50636 10 250 250 250 0.000977516 0.000977516 0.999999 
30.2812 11.3264 10 250 250 250 0.000977516 0.000977516 0.999999 
24.9201 14.3269 4.58894 250 250 250 -0.973948 0.226745 -0.00352454 
0.599979 1.67473 0 250 250 250 -0.000977516 -0.000977516 -0.999999 
23.7473 12.5654 2.74017 250 250 250 -0.584327 0.811489 -0.00684224 
24.254 -1.67283 23.3531 250 250 250 0.976543 -0.191843 0.097778 
25 -19.659 1.62192 250 250 250 -0.999999 -0.000977516 -0.000977516 
22.5801 -4.6874 27.1747 249 249 249 0.818182 -0.566211 0.0999195 
7.22035 -3.47503 17.878 249 249 249 -0.921482 -0.375419 0.0996566 
29.7971 -5.46932 -1.5 250 250 250 -0.000977516 -0.000977516 -0.999999 
11.2646 11.371 10 250 250 250 0.000977516 0.000977516 0.999999 
42.7567 -7.93698 8.3676 250 250 250 0.952066 -0.30589 0.00122847 
6.52325 -10.6592 1.66339 250 250 250 0.50238 -0.840318 -0.203668 
11.5965 -4.41245 49.455 250 250 250 -0.68407 -0.722319 0.101507 
22.1137 -3.77163 36.0488 249 249 249 0.856075 -0.507357 0.098613 
13.0141 6.00875 44.0246 249 249 249 -0.416591 0.903768 0.0982657 
26.4254 -23.2631 8.85348 250 250 250 -0.520412 -0.853906 0.0040342 
27.5836 -19.8405 -1.5 249 249 249 -0.000977516 -0.000977516 -0.999999 
16.1853 8.41958 25.7006 250 250 250 0.0524278 0.993898 0.0970473 
42.3753 -9.0354 0.639114 250 250 250 0.937612 -0.347682 0.00125517 
25.9949 -22.9368 6.14036 250 250 250 -0.665817 -0.746103 -0.00415271 
43.7181 3.79874 7.32886 249 249 249 0.989041 0.147635 0.00111004 
14.8781 6.84448 41.0385 250 250 250 -0.124164 0.987396 0.0981483 
30.5692 9.67807 -1.5 250 250 250 -0.000977516 -0.000977516 -0.999999 
15.8104 -6.52278 44.8215 250 250 250 0.0119052 -0.994629 0.102818 
10.077 -12 8.9848 250 250 250 -0.000977516 -0.999999 -0.000977516 
14.2954 6.37338 44.6716 250 250 250 -0.217799 0.970652 0.101975 
29.1008 -20.484 -1.5 250 250 250 -0.000977516 -0.000977516 -0.999999 
23.1714 -0.390036 35.7126 250 250 250 0.993504 -0.0548835 0.0996864 
10.3752 -7.78092 15.4351 250 250 250 -0.566372 -0.818415 0.097051 
25 12.9966 -0.375847 250 250 250 -0.999999 -0.000977516 -0.000977516 
9.25166 0.854607 44.5077 250 250 250 -0.986076 0.132032 0.101105 
5.51126 10.8024 10 250 250 250 0.000977516 0.000977516 0.999999 
25 11.6516 -0.3061 250 250 250 -0.999999 -0.000977516 -0.000977516 
27.9061 10.2786 -1.5 250 250 250 -0.000977516 -0.000977516 -0.999999 
-4.54753 -6.43874 0 250 250 250 -0.000977516 -0.000977516 -0.999999 
26.6094 20.0793 10 250 250 250 0.000977516 0.000977516 0.999999 
34.7727 4.79687 -1.5 250 250 250 -0.000977516 -0.000977516 -0.999999 
34.0119 6.99431 -1.5 250 250 250 -0.000977516 -0.000977516 -0.999999 
22.0748 -5.25866 27.7493 250 250 250 0.766547 -0.634636 0.0982 
-5.01691 11.4431 8.52857 250 250 250 -0.397643 0.917539 -0.00128687 
22.1506 -7.18242 13.7926 250 250 250 0.662866 -0.742234 0.0984746 
-11.9696 -3.58226 9.61458 250 250 250 -0.934439 -0.284394 0.214346 
22.1038 2.65521 41.172 249 249 249 0.920118 0.378711 0.0998048 
11.1562 -4.93627 0.0438069 250 250 250 0.421921 -0.214662 -0.880853 
19.728 6.08663 37.313 250 250 250 0.542949 0.833866 0.0993726 
40.6738 -3.59138 -1.5 250 250 250 -0.000977516 -0.000977516 -0.999999 
22.2342 7.04988 14.2193 250 250 250 0.672103 0.733872 0.0985359 
14.6415 7.7865 2 249 249 249 -0.000977516 -0.000977516 -0.999999 
16.9757 -1.54831 2 250 250 250 -0.000977516 -0.000977516 -0.999999 
21.1272 -5.48827 33.1818 250 250 250 0.696261 -0.710981 0.0986247 
12.8501 6.16355 41.9169 250 250 250 -0.424199 0.899859 0.10153 
-7.4544 -4.39925 0 250 250 250 -0.000977516 -0.000977516 -0.999999 
-11.0839 5.75845 3.37803 250 250 250 -0.888291 0.459279 -0.00131599 
-1.14274 9.25151 10 249 249 249 0.000977516 0.000977516 0.999999 
25 -19.3532 0.0785158 250 250 250 -0.999999 -0.000977516 -0.000977516 
21.0292 -10.4328 10 250 250 250 0.00296142 -0.00690997 0.999972 
10.0616 2.37524 0 250 250 250 -0.000977516 -0.000977516 -0.999999 
9.73199 -7.84351 1.41553 249 249 249 0.780372 -0.625129 -0.0152471 
7.00172 3.15813 17.0038 250 250 250 -0.936399 0.336246 0.100472 
19.3913 12 5.26734 250 250 250 0.000977516 0.999999 0.000977516 
22.8422 0.464694 38.9618 250 250 250 0.992707 0.0692059 0.0987035 
33.4576 -8.10528 10 250 250 250 0.000977516 0.000977516 0.999999 
15.5132 12 6.92799 250 250 250 0.000977516 0.999999 0.000977516 
34.2108 4.57639 10 250 250 250 0.000977516 0.000977516 0.999999 
35.8525 -17.8347 -1.5 250 250 250 -0.000977516 -0.000977516 -0.999999 
13.9785 5.06936 56.3867 250 250 250 -0.326616 0.939854 0.0999845 
12.7434 6.25054 2 250 250 250 -0.000977516 -0.000977516 -0.999999 
20.7462 -8.24715 13.575 249 249 249 0.517294 -0.849738 0.101739 
25 -18.3208 3.10124 250 250 250 -0.999999 -0.000977516 -0.000977516 
26.7203 9.91143 -1.5 250 250 250 -0.000977516 -0.000977516 -0.999999 
18.774 -4.21407 58.2204 250 250 250 0.575362 -0.811334 0.10342 
20.8885 0.537138 58.4072 250 250 250 0.987495 0.102889 0.119446 
28.193 12.6534 -1.5 250 250 250 -0.000977516 -0.000977516 -0.999999 
20.9846 -2.21946 53.2197 250 250 250 0.91637 -0.387643 0.0999926 
39.1743 -0.75419 -1.5 250 250 250 -0.000977516 -0.000977516 -0.999999 
27.6203 -20.1592 -1.5 250 250 250 -0.000977516 -0.000977516 -0.999999 
31.0802 10.4793 10 250 250 250 0.000977516 0.000977516 0.999999 
16.4749 -7.83096 31.3773 250 250 250 0.0911395 -0.990998 0.0980615 
24.8049 13.9397 8.18073 250 250 250 -0.936483 0.35071 -0.00125702 
11.4033 4.68683 46.1354 249 249 249 -0.675161 0.731057 0.098553 
31.5762 22.1729 7.50155 250 250 250 0.522373 0.852716 0.00134286 
25.1437 1.73164 -1.5 250 250 250 -0.535117 0.0430874 -0.843678 
25.8492 1.608 -1.5 250 250 250 -0.000977516 -0.000977516 -0.999999 
33.3432 -7.80906 -1.5 250 250 250 -0.000977516 -0.000977516 -0.999999 
21.0732 2.87923 49.5344 249 249 249 0.872507 0.478106 0.100728 
13.1205 -5.59117 48.2707 250 250 250 -0.425646 -0.899819 0.0956664 
32.7035 15.7413 10 250 250 250 0.000977516 0.000977516 0.999999 
41.0633 9.73695 -1.5 250 250 250 -0.000977516 -0.000977516 -0.999999 
20.3315 -12 3.38618 250 250 250 -0.000977516 -0.999999 -0.000977516 
31.8817 -5.2702 -1.5 250 250 250 -0.000977516 -0.000977516 -0.999999 
38.2221 -16.3355 3.3525 250 250 250 0.778585 -0.627537 0.00137317 
4.04827 9.40276 0 250 250 250 -0.000977516 -0.000977516 -0.999999 
11.025 5.09488 40.5598 249 249 249 -0.679793 0.726777 0.0983718 
7.90986 1.95123 29.2417 250 250 250 -0.966626 0.235607 0.100611 
35.8064 1.71168 10 249 249 249 0.000977516 0.000977516 0.999999 
15.9482 12 7.97177 250 250 250 0.000977516 0.999999 0.000977516 
12.4945 0.227607 1.14304 249 249 249 0.999821 0.0189021 -0.000994847 
9.61596 -2.94715 41.9799 250 250 250 -0.897439 -0.429936 0.0987878 
22.026 3.53844 37.988 250 250 250 0.865886 0.490527 0.0981053 
15.5025 7.82735 31.7026 250 250 250 -0.0318742 0.994694 0.0978207 
43.8035 3.15932 4.60411 249 249 249 0.992658 0.12095 0.00108964 
39.6305 -0.108459 -1.5 250 250 250 -0.000977516 -0.000977516 -0.999999 
22.6184 12.0664 3.4228 249 249 249 -0.205018 0.978758 0.00115829 
10.1009 -4.02823 0 250 250 250 -0.000977516 -0.000977516 -0.999999 
17.8027 8.76908 19.935 249 249 249 0.223188 0.969672 0.0996152 
23.1408 -11.3842 2 250 250 250 -0.000977516 -0.000977516 -0.999999 
23.1059 -5.17665 20.0674 250 250 250 0.814902 -0.570867 0.100229 
-10.1775 -7.24234 8.71143 250 250 250 -0.811146 -0.584843 0.00136327 
12.2367 12 7.11888 250 250 250 0.000977516 0.999999 0.000977516 
17.1145 8.43452 24.5582 250 250 250 0.155921 0.982662 0.100321 
17.4693 -9.16669 16.7241 250 250 250 0.183739 -0.977887 0.099885 
42.8439 -3.39711 -1.5 250 250 250 -0.000977516 -0.000977516 -0.999999 
21.3719 -1.96117 2 250 250 250 -0.000977516 -0.000977516 -0.999999 
36.8455 -3.1123 10 250 250 250 0.000977516 0.000977516 0.999999 
32.7369 3.42293 10 250 250 250 0.000977516 0.000977516 0.999999 
29.959 20.7209 10 250 250 250 0.000977516 0.000977516 0.999999 
8.70268 -8.35532 0.00603941 250 250 250 0.219701 -0.208918 -0.952935 
14.5986 0.956622 60 250 250 250 0.000977516 0.000977516 0.999999 
17.8809 -0.267131 60 249 249 249 0.000977516 0.000977516 0.999999 
29.8597 -16.1827 10 250 250 250 0.000977516 0.000977516 0.999999 
22.5209 -3.18783 35.1921 249 249 249 0.901693 -0.420975 0.0986443 
19.2932 -6.84611 2 250 250 250 -0.000977516 -0.000977516 -0.999999 
6.48517 -10.726 10 250 250 250 0.000977516 0.000977516 0.999999 
-0.294814 -12.4929 5.53654 250 250 250 -0.0209326 -0.99978 0.00099679 
26.0797 23.0169 2.90927 250 250 250 -0.639507 0.768784 -0.00137528 
10.8196 -2.04439 56.694 250 250 250 -0.917775 -0.384344 0.0998473 
21.9809 -10.486 2 250 250 250 -0.000977516 -0.000977516 -0.999999 
25.0931 -21.4485 0.457553 250 250 250 -0.970072 -0.242814 0.00118446 
24.754 -4.9515 2 250 250 250 -0.367159 0.0140723 -0.930052 
19.296 8.86368 14.5347 250 250 250 0.368849 0.924164 0.0993578 
12.1494 -3.76512 57.9702 250 250 250 -0.685525 -0.720907 0.101723 
38.4662 -16.034 2.99638 249 249 249 0.785794 -0.618487 0.00137137 
32.0951 6.22108 10 250 250 250 0.000977516 0.000977516 0.999999 
-10.8077 -4.18824 10 250 250 250 0.000977516 0.000977516 0.999999 
22.5166 -0.576079 42.1426 250 250 250 0.99141 -0.0815644 0.102243 
14.7947 5.56651 53.5867 250 250 250 -0.169687 0.980276 0.101324 
37.373 11.1722 -1.5 250 250 250 -0.000977516 -0.000977516 -0.999999 
11.1138 -3.93223 49.2619 250 250 250 -0.759816 -0.642696 0.098088 
12.5707 -6.94955 33.5957 250 250 250 -0.410967 -0.906341 0.0982446 
42.1697 9.57503 6.14182 250 250 250 0.929435 0.368984 -0.00126799 
8.25192 7.25626 10.3237 250 250 250 -0.438622 0.425674 0.791462 
-4.41281 2.74103 10 250 250 250 0.000977516 0.000977516 0.999999 
1.22827 -4.09847 0 250 250 250 -0.000977516 -0.000977516 -0.999999 
20.5447 1.82202 58.701 249 249 249 0.91702 0.351169 0.189091 
8.87384 -0.381454 41.1853 250 250 250 -0.993752 -0.0547737 0.0972513 
25.3271 22.0651 0.0701376 250 250 250 -0.892572 0.450887 0.00394362 
28.193 12.4827 -1.5 250 250 250 -0.000977516 -0.000977516 -0.999999 
10.145 3.68342 42.9675 250 250 250 -0.831675 0.546283 0.0994551 
19.4421 12 5.92025 250 250 250 0.000977516 0.999999 0.000977516 
-6.84848 -7.45496 0 250 250 250 -0.000977516 -0.000977516 -0.999999 
14.1562 7.95877 28.8543 249 249 249 -0.194696 0.975959 0.0979679 
19.3276 4.38472 53.4766 250 250 250 0.628266 0.771786 0.0981208 
11.4496 -5.00629 0.88347 249 249 249 0.915316 -0.402635 -0.00906253 
43.6264 4.38332 6.20945 250 250 250 0.985368 0.170436 0.00112871 
27.339 6.01671 -1.5 250 250 250 -0.000977516 -0.000977516 -0.999999 
38.3374 8.09566 -1.5 250 250 250 -0.000977516 -0.000977516 -0.999999 
43.2742 -6.09751 -0.80406 250 250 250 0.972119 -0.234487 0.00117833 
6.69803 3.78182 11.8759 250 250 250 -0.917775 0.384344 0.0998473 
33.4094 14.9324 10 250 250 250 0.000977516 0.000977516 0.999999 
-4.53572 -11.6392 2.05461 250 250 250 -0.368523 -0.929597 0.00637583 
19.41 -5.29438 2 250 250 250 -0.000977516 -0.000977516 -0.999999 
9.13968 12 3.95125 250 250 250 0.000977516 0.999999 0.000977516 
24.3123 -4.59963 12.8017 250 250 250 0.87685 -0.470195 0.100252 
12.5974 -8.62521 18.1724 250 250 250 -0.342699 -0.934023 0.100794 
24.9367 -2.83585 13.8578 250 250 250 0.951648 -0.290088 0.101072 
43.8169 -3.04962 9.5377 250 250 250 0.984289 -0.0971101 0.147463 
23.4529 4.79624 2 250 250 250 -0.000977516 -0.000977516 -0.999999 
28.8456 -12.5698 -1.5 250 250 250 -0.000977516 -0.000977516 -0.999999 
27.5881 23.678 4.27415 250 250 250 -0.140185 0.990125 -0.00110382 
41.0672 8.62232 -1.5 250 250 250 -0.000977516 -0.000977516 -0.999999 
32.1329 -19.6035 -1.5 250 250 250 -0.000977516 -0.000977516 -0.999999 
38.8602 7.79388 -1.5 250 250 250 -0.000977516 -0.000977516 -0.999999 
-11.213 3.64972 0 250 250 250 -0.0716013 0.0267169 -0.997075 
34.0356 17.49 10 250 250 250 0.000977516 0.000977516 0.999999 
12.2058 7.51804 26.8834 250 250 250 -0.423257 0.900636 0.0985288 
8.2706 9.00126 0.0570851 249 249 249 0.379083 0.391667 -0.838387 
17.115 8.64357 22.4914 250 250 250 0.155588 0.982979 0.0976949 
20.8502 10.0887 10.0043 249 249 249 0.0449144 0.0799695 0.995785 
16.6119 -8.38141 25.7706 249 249 249 0.103745 -0.989656 0.0990822 
25.6379 6.92588 -1.5 250 250 250 -0.000977516 -0.000977516 -0.999999 
12.9306 -6.75707 36.828 250 250 250 -0.38105 -0.919163 0.0997012 
15.3834 8.41448 25.7894 249 249 249 -0.0455379 0.99406 0.0988506 
24.0217 5.46135 11.0992 250 250 250 0.796442 0.527267 0.296093 
10.1464 0.490087 53.8293 249 249 249 -0.991018 0.0886277 0.100138 
12.6774 -8.16613 22.7501 250 250 250 -0.351727 -0.9312 0.0956805 
18.99 8.09202 22.832 249 249 249 0.368849 0.924164 0.0993578 
4.78411 -7.85839 0 250 250 250 -0.000977516 -0.000977516 -0.999999 
39.8539 14.0792 4.2864 250 250 250 0.840871 0.541234 -0.00134971 
12.9921 -4.44792 57.7513 250 250 250 -0.524008 -0.845592 0.10193 
34.088 -2.25358 10 250 250 250 0.000977516 0.000977516 0.999999 
15.8894 5.41844 55.8811 250 250 250 0.0229314 0.994786 0.0993694 
42.9335 3.5375 10 250 250 250 0.000977516 0.000977516 0.999999 
33.7312 20.6982 8.44183 250 250 250 0.603278 0.79753 -0.00136798 
-1.35242 -0.241942 0 250 250 250 -0.000977516 -0.000977516 -0.999999 
-11.7349 -4.30073 2.10168 250 250 250 -0.939235 -0.343255 0.00377203 
25 7.51518 -0.399278 250 250 250 -0.999999 -0.000977516 -0.000977516 
11.9992 5.66607 42.0993 250 250 250 -0.549613 0.829469 0.0995362 
24.4991 1.39965 21.4083 250 250 250 0.981736 0.161398 0.100722 
17.1361 -8.92995 19.6491 250 250 250 0.150839 -0.983471 0.100157 
-11.0388 -5.84649 4.31593 249 249 249 -0.885003 -0.465583 -0.00131893 
29.0379 -23.5227 7.86488 250 250 250 0.333408 -0.942782 -0.00124872 
-9.20332 8.45417 5.24071 250 250 250 -0.74075 0.671779 0.00137942 
28.6323 2.91644 10 249 249 249 0.000977516 0.000977516 0.999999 
38.3765 -7.0615 10 250 250 250 0.000977516 0.000977516 0.999999 
32.9687 21.2557 5.83553 250 250 250 0.572458 0.819933 0.00135976 
-11.0772 5.77143 9.02321 250 250 250 -0.888291 0.459279 0.00131599 
33.8225 20.6304 4.08906 250 250 250 0.606331 0.795211 0.00136869 
-4.78133 -11.17 10 250 250 250 -0.0754053 -0.218799 0.972852 
18.8594 -2.6945 2 250 250 250 -0.000977516 -0.000977516 -0.999999 
35.1524 -10.3321 -1.5 249 249 249 -0.000977516 -0.000977516 -0.999999 
18.6697 7.06167 33.6188 250 250 250 0.377862 0.920782 0.0968527 
6.5516 10.6395 0.8136 250 250 250 0.52476 0.850852 -0.0260325 
19.0316 9.5504 10.6939 250 250 250 0.272608 0.78946 0.549943 
25.4786 -2.69085 10.6997 250 250 250 0.8056 -0.230392 0.545829 
6.51418 0.629854 17.4124 249 249 249 -0.992707 0.0692059 0.0987035 
29.5638 12.8982 -1.5 250 250 250 -0.000977516 -0.000977516 -0.999999 
8.12028 10.5898 2 250 250 250 -0.000977516 -0.000977516 -0.999999 
25.0099 -20.881 7.66381 250 250 250 -0.997066 -0.0765361 0.00104844 
30.6043 10.1594 10 249 249 249 0.000977516 0.000977516 0.999999 
-12.4522 -0.97464 5.5128 250 250 250 -0.997066 -0.0765361 -0.00104844 
1.56111 12.4018 6.01018 250 250 250 0.125512 0.992091 -0.00109141 
26.0954 -20.64 -1.5 250 250 250 -0.000977516 -0.000977516 -0.999999 
20.5576 -8.00211 2 250 250 250 -0.000977516 -0.000977516 -0.999999 
25.8939 -3.40016 10.1584 250 250 250 0.416784 -0.14367 0.89758 
12.6407 2.91891 2 250 250 250 0.109948 0.00979737 -0.993889 
9.13243 -4.35473 30.8131 250 250 250 -0.830783 -0.547595 0.099694 
23.0635 1.55325 35.2732 250 250 250 0.974143 0.20331 0.0985369 
-11.678 4.44733 2.0334 250 250 250 -0.933523 0.358463 0.00633326 
18.6403 12 5.02323 250 250 250 0.000977516 0.999999 0.000977516 
0.366373 10.1702 10 250 250 250 0.000977516 0.000977516 0.999999 
30.3539 22.8737 4.87703 250 250 250 0.478202 0.878249 0.00132466 
12.6692 -6.40054 39.0162 250 250 250 -0.433279 -0.895815 0.0989158 
22.9294 -4.63112 24.5675 250 250 250 0.834926 -0.540755 0.102383 
-8.19976 -1.50852 0 250 250 250 -0.000977516 -0.000977516 -0.999999 
26.898 1.56355 -1.5 250 250 250 -0.000977516 -0.000977516 -0.999999 
25 15.4374 1.02493 250 250 250 -0.999999 -0.000977516 -0.000977516 
19.1649 -6.48841 36.7111 250 250 250 0.463469 -0.88045 0.100019 
12.9834 -6.09957 2 250 250 250 -0.000977516 -0.000977516 -0.999999 
18.903 -4.86705 52.0823 250 250 250 0.54206 -0.834049 0.10263 
14.4109 -7.78069 31.0622 250 250 250 -0.172469 -0.979769 0.101524 
20.3826 11.7348 10 249 249 249 0.0387916 0.286558 0.957277 
24.2281 5.7923 2 249 249 249 -0.000977516 -0.000977516 -0.999999 
14.7453 12 6.47312 249 249 249 0.000977516 0.999999 0.000977516 
11.8461 6.54313 33.8316 249 249 249 -0.51283 0.852813 0.0985663 
11.6413 -4.55121 0.953032 250 250 250 0.930303 -0.366791 -0.00126917 
32.729 21.4209 0.0525908 250 250 250 0.56624 0.824239 -0.00135789 
14.4735 -7.21726 36.7347 250 250 250 -0.172098 -0.980106 0.098865 
37.8412 -10.9716 10 250 250 250 0.000977516 0.000977516 0.999999 
7.05008 4.64256 11.3676 250 250 250 -0.870416 0.463734 0.165306 
39.0228 -3.37461 -1.5 250 250 250 -0.000977516 -0.000977516 -0.999999 
11.8269 4.44759 50.7504 249 249 249 -0.659767 0.744993 0.0984508 
21.5904 6.83839 20.0637 249 249 249 0.647085 0.755666 0.101245 
15.7129 -6.41359 45.924 250 250 250 -0.00536673 -0.994991 0.0998211 
13.8025 5.97071 47.2581 250 250 250 -0.308308 0.946096 0.0992408 
7.51439 2.63043 23.5467 250 250 250 -0.946887 0.305064 0.101688 
18.6055 -6.97177 2 249 249 249 -0.000977516 -0.000977516 -0.999999 
39.6585 -14.3813 -0.61545 250 250 250 0.833922 -0.55188 -0.00135597 
11.1209 4.73262 0.00803628 250 250 250 0.311357 0.142762 -0.939508 
37.6227 15.5672 -1.5 250 250 250 -0.000977516 -0.000977516 -0.999999 
8.9224 7.70767 10.446 250 250 250 -0.47168 0.538349 0.698354 
27.6704 -15.0304 10 250 250 250 0.000977516 0.000977516 0.999999 
2.17409 -12.3002 7.15576 250 250 250 0.170436 -0.985368 -0.00112871 
30.1716 22.9734 7.29044 250 250 250 0.468736 0.883337 -0.00132038 
22.7742 5.2059 22.5816 250 250 250 0.79926 0.59253 0.100453 
9.2845 1.06079 44.5233 249 249 249 -0.981787 0.159373 0.10341 
15.0651 5.77251 51.9334 250 250 250 -0.121295 0.988023 0.0953872 
-7.63026 -9.89386 1.09637 250 250 250 -0.612421 -0.79053 0.00137007 
-4.91356 -4.38481 0 250 250 250 -0.000977516 -0.000977516 -0.999999 
11.0204 5.22081 39.6005 250 250 250 -0.66576 0.739243 0.101407 
28.7372 -23.6145 3.0725 250 250 250 0.248976 -0.968503 0.00357381 
12.7665 6.18917 41.3244 250 250 250 -0.436625 0.894175 0.0990428 
32.6844 -21.452 7.41061 250 250 250 0.56624 -0.824239 0.00135789 
-9.87773 1.72114 10 250 250 250 0.000977516 0.000977516 0.999999 
-3.33964 8.3538 0 250 250 250 -0.000977516 -0.000977516 -0.999999 
16.9472 8.78273 21.3705 250 250 250 0.134716 0.985931 0.0989508 
11.3993 -7.14371 26.3686 249 249 249 -0.517443 -0.849983 0.0989019 
13.4634 -5.8121 2 250 250 250 -0.000977516 -0.000977516 -0.999999 
8.42924 0.702657 36.4946 250 250 250 -0.989976 0.0963282 0.103292 
-1.45914 -2.55769 10 250 250 250 0.000977516 0.000977516 0.999999 
9.61345 -9.23312 10.0259 249 249 249 -0.100761 -0.159033 0.982118 
43.8677 -2.61233 1.31367 250 250 250 0.995047 -0.0993978 0.00106879 
-11.481 4.92044 3.63072 250 250 250 -0.920595 0.390517 0.00128038 
9.50068 3.15267 40.0398 250 250 250 -0.889154 0.446678 0.0994173 
-3.32502 2.15595 0 250 250 250 -0.000977516 -0.000977516 -0.999999 
18.9717 8.91704 15.197 249 249 249 0.336246 0.936399 0.100472 
-7.39747 4.65124 0 250 250 250 -0.000977516 -0.000977516 -0.999999 
25.2832 -21.9706 8.59231 250 250 250 -0.906811 -0.421439 -0.00913335 
17.3972 12 5.10459 250 250 250 0.000977516 0.999999 0.000977516 
15.6862 6.14929 48.5625 250 250 250 -0.007531 0.995167 0.097903 
25.259 21.9289 2.20772 250 250 250 -0.913437 0.406977 0.00129199 
21.8404 6.86535 18.229 250 250 250 0.659767 0.744993 0.0984508 
19.5275 -9.07681 11.6666 250 250 250 0.378788 -0.918734 0.11157 
32.5719 -21.53 8.44342 250 250 250 0.560008 -0.828486 -0.00135595 
12.2947 -11.1728 10 250 250 250 -0.00296142 -0.00690997 0.999972 
1.9461 12.3382 5.87153 250 250 250 0.160219 0.987081 -0.00112041 
41.5373 7.10391 -1.5 250 250 250 -0.000977516 -0.000977516 -0.999999 
16.1389 -5.99497 49.984 250 250 250 0.0621325 -0.992991 0.100542 
24.8646 1.51356 17.6003 250 250 250 0.981497 0.164191 0.0985146 
18.0179 6.21054 43.94 250 250 250 0.341932 0.934613 0.0978863 
29.285 -23.422 8.30835 250 250 250 0.394539 -0.918878 0.00128514 
-4.6007 3.95609 0 250 250 250 -0.000977516 -0.000977516 -0.999999 
19.8429 4.06112 52.4043 250 250 250 0.70513 0.702185 0.0986298 
13.9505 -5.33951 53.7178 249 249 249 -0.314656 -0.943968 0.0995747 
38.8792 -15.4876 7.24185 249 249 249 0.802126 -0.597153 -0.00136648 
26.3402 13.4992 -1.5 250 250 250 -0.000977516 -0.000977516 -0.999999 
18.2911 6.91049 36.4097 250 250 250 0.342791 0.934272 0.0981322 
21.1522 -9.25267 2 250 250 250 -0.000977516 -0.000977516 -0.999999 
18.187 -7.44145 31.7246 250 250 250 0.311395 -0.944787 0.102032 
25 -17.3923 -0.64322 250 250 250 -0.999999 -0.000977516 -0.000977516 
20.6937 -6.32403 29.7373 250 250 250 0.612027 -0.784388 0.100787 
5.81058 12 3.40622 250 250 250 0.000977516 0.999999 0.000977516 
37.3918 14.025 -1.5 250 250 250 -0.000977516 -0.000977516 -0.999999 
17.2907 12 8.135 250 250 250 0.000977516 0.999999 0.000977516 
21.8168 6.39078 21.8772 250 250 250 0.684271 0.722532 0.0985939 
4.33598 -7.11615 0 250 250 250 -0.000977516 -0.000977516 -0.999999 
34.4462 16.6588 -1.5 250 250 250 -0.000977516 -0.000977516 -0.999999 
28.3932 15.4283 -1.5 250 250 250 -0.000977516 -0.000977516 -0.999999 
-0.425053 -1.03257 10 250 250 250 0.000977516 0.000977516 0.999999 
36.1929 18.5692 1.72531 250 250 250 0.700167 0.713977 -0.001381 
-8.56818 -9.09387 7.66256 249 249 249 -0.691755 -0.722131 0.00138075 
27.2707 23.6156 -1.38536 250 250 250 -0.209363 0.817585 -0.536397 
14.7968 7.03107 39.0792 250 250 250 -0.134431 0.986226 0.0963623 
19.8589 3.85856 53.7069 250 250 250 0.723934 0.682818 0.0983845 
9.58928 -6.70663 18.9161 250 250 250 -0.672103 -0.733872 0.0985359 
23.4615 -2.04151 30.2446 250 250 250 0.962363 -0.253118 0.0989345 
31.6014 2.33446 -1.5 250 250 250 -0.000977516 -0.000977516 -0.999999 
0.695363 7.59448 0 250 250 250 -0.000977516 -0.000977516 -0.999999 
36.6955 -8.46631 -1.5 250 250 250 -0.000977516 -0.000977516 -0.999999 
10.8824 -2.13625 56.926 249 249 249 -0.911341 -0.398453 0.103405 
36.6127 -14.5456 10 250 250 250 0.000977516 0.000977516 0.999999 
11.3134 8.23918 16.4137 250 250 250 -0.471362 0.876195 0.100501 
23.9875 0.584574 27.4253 250 250 250 0.992893 0.0667967 0.0984968 
26.7132 23.4114 1.54152 250 250 250 -0.433025 0.901373 -0.0039247 
10.4025 6.92973 1.527 250 250 250 0.827046 0.55088 -0.11192 
33.859 -15.4297 10 250 250 250 0.000977516 0.000977516 0.999999 
-10.473 -6.81771 1.2245 250 250 250 -0.836802 -0.547504 -0.00135186 
2.73828 0.791436 10 250 250 250 0.000977516 0.000977516 0.999999 
11.2235 -7.1093 25.7322 250 250 250 -0.534064 -0.839243 0.102206 
32.3673 -4.49151 -1.5 249 249 249 -0.000977516 -0.000977516 -0.999999 
-10.2622 -2.08641 10 250 250 250 0.000977516 0.000977516 0.999999 
26.8242 10.0563 -1.5 250 250 250 -0.000977516 -0.000977516 -0.999999 
-8.77389 8.89828 1.20967 250 250 250 -0.700167 0.713977 -0.001381 
11.5114 7.71165 21.9964 250 250 250 -0.48029 0.871323 0.100592 
21.1121 2.6237 50.3586 249 249 249 0.891948 0.441073 0.0994165 
7.261 2.46815 0 250 250 250 -0.000977516 -0.000977516 -0.999999 
1.75035 10.2696 10 250 250 250 0.000977516 0.000977516 0.999999 
4.0616 -12 2.61804 250 250 250 0.000977516 -0.999999 0.000977516 
20.4613 2.85795 54.9758 250 250 250 0.85305 0.512973 0.0957359 
24.0537 -4.36144 16.1978 250 250 250 0.88045 -0.463469 0.100019 
7.87303 -3.85056 0 250 250 250 -0.000977516 -0.000977516 -0.999999 
16.5412 6.69994 42.5734 250 250 250 0.116325 0.988177 0.0998752 
5.93079 -12 4.98331 250 250 250 -0.000977516 -0.999999 -0.000977516 
1.68117 11.2464 0 250 250 250 -0.000977516 -0.000977516 -0.999999 
35.4761 19.2458 1.5331 250 250 250 0.673154 0.739501 0.00138225 
10.9113 6.08802 1.51118 250 250 250 0.860399 0.493103 -0.128698 
9.16049 0.0227464 0 250 250 250 -0.000977516 -0.000977516 -0.999999 
27.4499 -6.02437 10 250 250 250 0.000977516 0.000977516 0.999999 
22.5219 10.3109 10 249 249 249 0.000977516 0.000977516 0.999999 
11.866 -4.19619 52.8803 250 250 250 -0.673711 -0.732422 0.0983413 
25 15.9313 1.32887 250 250 250 -0.999999 -0.000977516 -0.000977516 
18.2412 -5.53796 49.3395 250 250 250 0.40855 -0.90712 0.101099 
38.9876 -3.80794 -1.5 250 250 250 -0.000977516 -0.000977516 -0.999999 
13.0096 7.34443 31.6393 250 250 250 -0.346805 0.932461 0.101208 
27.5688 9.50054 10 250 250 250 0.000977516 0.000977516 0.999999 
27.0326 -23.0403 10 250 250 250 -0.0557659 -0.119498 0.991267 
-0.889816 6.26319 10 249 249 249 0.000977516 0.000977516 0.999999 
23.5826 12.4555 4.25442 250 250 250 -0.528668 0.848828 -0.00134521 
23.2134 1.89489 33.0272 249 249 249 0.965108 0.241597 0.100985 
-11.2086 -5.29638 0.203158 250 250 250 -0.74356 -0.303526 -0.595811 
43.8041 2.16307 -1.5 250 250 250 0.533864 0.0429865 -0.844477 
17.236 8.1706 2 250 250 250 -0.000977516 -0.000977516 -0.999999 
35.7752 18.9708 6.99719 250 250 250 0.683251 0.730182 -0.00138031 
2.72288 -5.8868 0 250 250 250 -0.000977516 -0.000977516 -0.999999 
12.1427 -12 4.12881 250 250 250 -0.000977516 -0.999999 -0.000977516 
18.7201 2.59435 2 250 250 250 -0.000977516 -0.000977516 -0.999999 
25.1441 13.6898 10 250 250 250 -0.159986 0.0675498 0.984805 
26.3169 0.144931 -1.5 250 250 250 -0.000977516 -0.000977516 -0.999999 
-10.7732 6.32583 6.22038 250 250 250 -0.859615 0.510941 0.00134105 
8.98518 9.74556 2 250 250 250 -0.000977516 -0.000977516 -0.999999 
25 -17.6488 8.29095 250 250 250 -0.999999 -0.000977516 -0.000977516 
10.4986 2.48107 51.9862 250 250 250 -0.899289 0.42671 0.0959056 
35.5556 -19.1092 -1.5 250 250 250 0.394404 -0.495034 -0.774201 
25.0676 -21.3228 0.463263 250 250 250 -0.979955 -0.199215 -0.00115153 
42.8097 -1.39741 -1.5 250 250 250 -0.000977516 -0.000977516 -0.999999 
6.68147 7.30091 10 250 250 250 -0.00893687 0.00695089 0.999936 
38.9155 15.4422 4.11206 250 250 250 0.803435 0.595391 -0.00136871 
1.08845 -6.72093 0 250 250 250 -0.000977516 -0.000977516 -0.999999 
39.8562 14.0757 6.38786 250 250 250 0.838844 0.54437 0.0013508 
19.1145 12 4.04319 250 250 250 0.000977516 0.999999 0.000977516 
9.6388 5.90496 25.0348 249 249 249 -0.716782 0.690289 0.0986127 
-9.80377 -7.75346 5.00658 250 250 250 -0.783405 -0.62151 0.00137199 
25.4761 -1.19543 -1.5 250 250 250 -0.135733 0.0213135 -0.990516 
15.6794 -12 7.33878 250 250 250 -0.000977516 -0.999999 -0.000977516 
26.1919 20.2604 -1.5 250 250 250 -0.000977516 -0.000977516 -0.999999 
11.8604 -5.23376 44.8327 250 250 250 -0.59253 -0.79926 0.100453 
23.6347 -5.37519 14.5735 250 250 250 0.822747 -0.559583 0.0997707 
15.7577 9.18658 18.148 249 249 249 -0.00106879 0.995047 0.0993978 
-8.72242 -1.43797 0 249 249 249 -0.000977516 -0.000977516 -0.999999 
25.3539 0.259514 13.9324 250 250 250 0.994868 0.0273616 0.0974074 
7.32663 -1.58856 0 250 250 250 -0.000977516 -0.000977516 -0.999999 
19.1248 7.01156 32.222 250 250 250 0.431012 0.896895 0.0990351 
26.4402 -6.48465 10 250 250 250 0.000977516 0.000977516 0.999999 
25.7213 11.2158 -1.5 250 250 250 -0.000977516 -0.000977516 -0.999999 
20.4198 4.27671 46.7462 249 249 249 0.735225 0.670654 0.0983235 
22.7877 6.5786 13.662 250 250 250 0.725387 0.681246 0.098582 
28.4504 11.5856 -1.5 250 250 250 -0.000977516 -0.000977516 -0.999999 
34.5646 16.5625 -1.5 250 250 250 -0.000977516 -0.000977516 -0.999999 
-12.403 1.5364 4.53027 250 250 250 -0.992394 0.123096 -0.00108935 
16.0406 7.92082 30.7743 250 250 250 0.0364965 0.994253 0.100642 
9.51558 -5.48911 26.9382 250 250 250 -0.747738 -0.656658 0.0984253 
8.74732 -3.42162 32.0747 250 250 250 -0.895011 -0.434241 0.101928 
32.7859 1.87015 -1.5 250 250 250 -0.000977516 -0.000977516 -0.999999 
10.8357 -2.60194 54.4627 250 250 250 -0.877744 -0.469163 0.0972141 
15.2844 -5.31737 56.7077 250 250 250 -0.0840374 -0.991181 0.102457 
27.7053 15.1273 -1.5 250 250 250 -0.000977516 -0.000977516 -0.999999 
7.19934 -3.13406 18.9255 250 250 250 -0.932812 -0.345934 0.100954 
20.4089 -8.28652 14.9371 250 250 250 0.487022 -0.867552 0.100812 
9.59737 -5.18399 29.5603 250 250 250 -0.761247 -0.640973 0.0982727 
40.76 12.5611 2.44176 249 249 249 0.874782 0.484515 0.00132744 
43.2432 -6.21745 5.05625 250 250 250 0.970765 -0.240031 0.00118242 
18.6372 -5.5101 47.8511 250 250 250 0.466962 -0.878904 0.0973424 
-11.6247 -2.35307 10 250 250 250 0.000977516 0.000977516 0.999999 
15.4549 8.39852 25.9678 250 250 250 -0.0364164 0.994278 0.100421 
16.862 -8.31497 26.1142 249 249 249 0.129147 -0.98697 0.0959719 
18.692 9.34454 12.0176 250 250 250 0.301236 0.948432 0.098658 
21.263 -2.15217 50.8746 250 250 250 0.925481 -0.365572 0.0992072 
36.8472 -1.71798 -1.5 250 250 250 -0.000977516 -0.000977516 -0.999999 
-5.26496 -11.333 8.29277 250 250 250 -0.427862 -0.903843 0.00130049 
6.30718 -2.37726 12.6229 249 249 249 -0.964755 -0.244064 0.0983922 
9.67263 1.50076 0 250 250 250 -0.000977516 -0.000977516 -0.999999 
-4.17576 -11.7786 2.11579 250 250 250 -0.333406 -0.942776 0.00374613 
37.2682 -15.1456 -1.5 250 250 250 -0.000977516 -0.000977516 -0.999999 
8.23073 12 9.92985 250 250 250 -0.0234967 0.816857 0.576361 
1.99297 -8.29714 10 250 250 250 0.000977516 0.000977516 0.999999 
42.2975 -9.24369 3.00292 250 250 250 0.935342 -0.353743 -0.00125887 
23.1744 -9.92428 2 250 250 250 -0.000977516 -0.000977516 -0.999999 
9.63321 -2.63977 43.4277 250 250 250 -0.914246 -0.39182 0.10311 
9.57828 7.09679 15.942 250 250 250 -0.65166 0.751689 0.1015 
25 19.26 1.13023 250 250 250 -0.999999 -0.000977516 -0.000977516 
0.893574 -7.93077 10 250 250 250 0.000977516 0.000977516 0.999999 
31.8324 22.0115 7.94244 250 250 250 0.531813 0.846861 0.00134636 
20.0351 7.24825 25.7978 249 249 249 0.507357 0.856075 0.098613 
7.01794 2.24875 19.8321 250 250 250 -0.963173 0.250091 0.0987541 
26.0496 -5.55723 -1.5 250 250 250 -0.000977516 -0.000977516 -0.999999 
14.7144 -11.6214 2 250 250 250 -0.03612 -0.171279 -0.98456 
8.97356 4.65821 27.7849 250 250 250 -0.820473 0.562899 0.0998459 
16.8853 -7.67278 32.4668 250 250 250 0.145082 -0.984402 0.0995193 
27.474 12.6336 10 250 250 250 0.000977516 0.000977516 0.999999 
17.2261 -8.21614 26.527 250 250 250 0.175304 -0.979494 0.0992979 
16.7461 5.63231 2 250 250 250 -0.000977516 -0.000977516 -0.999999 
34.1553 17.8042 10 250 250 250 0.000977516 0.000977516 0.999999 
17.6819 -8.51501 22.6828 250 250 250 0.223188 -0.969672 0.0996152 
41.6916 -5.9212 -1.5 250 250 250 -0.000977516 -0.000977516 -0.999999 
7.99344 -9.60718 1.17123 250 250 250 0.642481 -0.7663 0.00137576 
21.0543 1.29054 55.4909 250 250 250 0.966044 0.238011 0.10055 
16.3435 5.9377 50.3896 250 250 250 0.0961522 0.990484 0.0984692 
38.924 15.4311 8.26044 250 250 250 0.804402 0.594083 0.00136571 
-9.44044 8.17844 2.28179 250 250 250 -0.756412 0.654082 0.00414851 
16.3507 -12 8.22788 250 250 250 -0.000977516 -0.999999 -0.000977516 
27.0912 -9.16896 -1.5 250 250 250 -0.000977516 -0.000977516 -0.999999 
12.0764 -6.83727 32.4071 250 250 250 -0.470195 -0.87685 0.100252 
10.9275 4.68038 42.851 250 250 250 -0.715327 0.691825 0.0984125 
42.7322 -8.01027 -0.443434 249 249 249 0.951115 -0.308835 0.00123042 
15.1176 8.27627 27.0001 250 250 250 -0.0740365 0.99209 0.101373 
36.347 -0.325015 -1.5 250 250 250 -0.000977516 -0.000977516 -0.999999 
24.0738 1.18474 25.9333 249 249 249 0.985931 0.134716 0.0989508 
-8.82064 -8.85327 1.74376 250 250 250 -0.705713 -0.708486 0.00415941 
40.5314 12.9716 3.46792 250 250 250 0.867007 0.498295 -0.00133591 
33.1056 -21.16 6.73776 250 250 250 0.581753 -0.813364 0.00136242 
25 -20.4436 -0.222789 249 249 249 -0.99996 -0.00888415 0.000987127 
30.0133 -16.8941 10 250 250 250 0.000977516 0.000977516 0.999999 
25.6456 22.563 7.61998 249 249 249 -0.787127 0.616789 -0.00137369 
3.3764 12.0331 1.00066 250 250 250 0.271689 0.962384 -0.00120751 
10.7122 -10.2692 2 250 250 250 -0.000977516 -0.000977516 -0.999999 
12.3915 -1.61662 0.804088 250 250 250 0.991235 -0.129096 -0.0280644 
18.3638 -7.56287 29.9913 250 250 250 0.324231 -0.94067 0.100071 
21.0284 -7.25737 20.2719 250 250 250 0.584067 -0.805459 0.1005 
21.8186 3.86057 38.1095 250 250 250 0.84162 0.530868 0.099268 
10.3573 3.95574 0 250 250 250 -0.000977516 -0.000977516 -0.999999 
31.4043 3.08645 -1.5 250 250 250 -0.000977516 -0.000977516 -0.999999 
22.6272 -2.39927 37.1986 250 250 250 0.938717 -0.329819 0.100148 
9.71443 0.735543 49.2519 250 250 250 -0.987741 0.12155 0.097948 
25.8778 -17.8466 10 250 250 250 0.000977516 0.000977516 0.999999 
16.9127 -7.39117 35.2227 250 250 250 0.153523 -0.982788 0.102752 
-3.20713 7.8152 10 250 250 250 0.000977516 0.000977516 0.999999 
14.6583 6.0326 48.7466 250 250 250 -0.175682 0.979152 0.101969 
6.24819 -0.0774822 14.9812 250 250 250 -0.994915 -0.00970123 0.100246 
10.8547 -6.80276 26.1986 250 250 250 -0.580775 -0.807845 0.100435 
25.0297 1.90055 15.2829 250 250 250 0.975124 0.197509 0.100618 
21.2283 10.5592 10 250 250 250 0.000977516 0.000977516 0.999999 
-11.3161 -5.30607 1.24996 250 250 250 -0.905318 -0.424733 0.00129888 
9.86288 -0.464631 51.0026 250 250 250 -0.992111 -0.0764918 0.0993252 
43.5873 -4.59522 1.88619 249 249 249 0.983996 -0.178186 0.00113494 
26.1964 21.4785 10 250 250 250 0.000977516 0.000977516 0.999999 
37.5766 -12.6187 10 250 250 250 0.000977516 0.000977516 0.999999 
32.1944 8.98251 -1.5 250 250 250 -0.000977516 -0.000977516 -0.999999 
24.2977 0.231071 24.4897 250 250 250 0.994654 0.0273557 0.0995748 
16.5119 -12 2.9159 250 250 250 -0.000977516 -0.999999 -0.000977516 
-0.766867 1.98172 0 250 250 250 -0.000977516 -0.000977516 -0.999999 
16.6982 6.47629 44.6043 250 250 250 0.142734 0.984742 0.0995537 
30.4443 7.62736 -1.5 250 250 250 -0.000977516 -0.000977516 -0.999999 
-2.05602 -12.3213 6.27909 249 249 249 -0.160219 -0.987081 0.00112041 
22.3515 -3.56205 35.019 250 250 250 0.87685 -0.470195 0.100252 
-12.0377 -3.36121 3.43494 249 249 249 -0.962997 -0.269446 -0.00604138 
26.0184 22.3414 10 250 250 250 -0.127557 0.108483 0.985881 
22.9947 10.2266 10 250 250 250 0.000977516 0.000977516 0.999999 
19.0667 11.8234 2 250 250 250 0.0200428 0.458313 -0.888565 
27.6764 18.0887 -1.5 249 249 249 -0.000977516 -0.000977516 -0.999999 
40.9864 12.1464 3.46523 250 250 250 0.885003 0.465583 -0.00131893 
12.8949 1.56414 2 250 250 250 0.106317 0.0208249 -0.994114 
12.4854 -9.72629 10.4853 250 250 250 -0.227425 -0.694823 0.682275 
18.9833 9.05741 13.8316 250 250 250 0.33303 0.937566 0.10031 
36.5388 18.2279 5.99914 250 250 250 0.713977 0.700167 0.001381 
20.6109 12 3.64721 250 250 250 0.000977516 0.999999 0.000977516 
26.0974 10.9359 -1.5 250 250 250 -0.000977516 -0.000977516 -0.999999 
-5.81711 -2.3646 0 249 249 249 -0.000977516 -0.000977516 -0.999999 
25.5191 -22.3934 3.00422 250 250 250 -0.824239 -0.56624 0.00135789 
-12.321 2.09039 1.94692 249 249 249 -0.985666 0.168616 0.00565824 
3.49206 -7.8846 0 250 250 250 -0.000977516 -0.000977516 -0.999999 
19.017 10.4303 10.0674 250 250 250 0.0923425 0.287432 0.953339 
-4.56639 -11.6267 2.85626 250 250 250 -0.372047 -0.928213 0.00126979 
-10.5031 4.16063 0 250 250 250 -0.000977516 -0.000977516 -0.999999 
32.9756 2.53222 -1.5 249 249 249 -0.000977516 -0.000977516 -0.999999 
9.17677 -5.73864 22.7342 250 250 250 -0.747738 -0.656658 0.0984253 
2.70449 6.67327 10 250 250 250 0.000977516 0.000977516 0.999999 
11.6418 4.57822 48.5461 250 250 250 -0.664509 0.740789 0.0982828 
22.2011 -2.73801 2 249 249 249 -0.000977516 -0.000977516 -0.999999 
6.33587 -12 4.95686 249 249 249 -0.000977516 -0.999999 -0.000977516 
19.1973 -4.23554 55.4686 249 249 249 0.630212 -0.770584 0.0950436 
18.4468 -7.69195 28.4956 250 250 250 0.327436 -0.939542 0.100236 
4.40397 0.47231 0 250 250 250 -0.000977516 -0.000977516 -0.999999 
39.659 -14.3804 5.84517 250 250 250 0.833922 -0.55188 -0.00135597 
25 19.6658 5.83529 250 250 250 -0.999999 -0.000977516 -0.000977516 
11.4386 2.76213 58.7562 249 249 249 -0.816831 0.53071 0.226128 
40.8236 -12.4445 8.60703 249 249 249 0.878249 -0.478202 -0.00132466 
4.16566 -11.6272 0.145842 250 250 250 0.237731 -0.662813 -0.710044 
39.8491 13.1281 10 250 250 250 0.0835347 0.0612588 0.99462 
23.0942 -5.02759 20.9962 250 250 250 0.822747 -0.559583 0.0997707 
-2.93827 -12.1402 5.10165 249 249 249 -0.231726 -0.97278 0.00117628 
21.4765 -12 7.61963 250 250 250 -0.000977516 -0.999999 -0.000977516 
14.3282 -8.68576 21.9798 250 250 250 -0.1638 -0.981586 0.0982799 
19.9474 -3.14114 57.6563 250 250 250 0.795668 -0.597842 0.0974584 
-7.37188 5.69968 0 250 250 250 -0.000977516 -0.000977516 -0.999999 
7.03995 1.88139 20.8843 250 250 250 -0.972367 0.211493 0.0988635 
43.9763 1.05742 0.341124 250 250 250 0.999131 0.0416728 0.00101641 
4.52373 -5.17786 10 249 249 249 0.000977516 0.000977516 0.999999 
-11.7458 -4.26311 0.97179 250 250 250 -0.939536 -0.342448 -0.00125439 
8.75584 2.89037 34.356 250 250 250 -0.918738 0.382009 0.0999521 
35.0313 -16.0935 10 250 250 250 0.000977516 0.000977516 0.999999 
4.64005 -2.21918 0 249 249 249 -0.000977516 -0.000977516 -0.999999 
43.9388 1.77197 8.2254 250 250 250 0.99771 0.0676237 0.00104037 
33.7078 9.03669 -1.5 250 250 250 -0.000977516 -0.000977516 -0.999999 
-10.7071 6.44025 1.4766 250 250 250 -0.857729 0.5141 -0.0013423 
7.44967 -3.13938 21.2763 250 250 250 -0.931836 -0.34927 0.0984429 
12.5084 5.72847 44.2302 249 249 249 -0.487159 0.867797 0.098 
-4.54113 11.637 6.83002 250 250 250 -0.368984 0.929435 -0.00126799 
35.5306 17.0424 -1.5 250 250 250 -0.000977516 -0.000977516 -0.999999 
42.2905 -9.26244 -1.32862 250 250 250 0.819497 -0.356648 -0.448583 
3.25248 -12.0617 3.57156 250 250 250 0.210402 -0.977614 0.00116244 
33.3158 -4.96032 10 250 250 250 0.000977516 0.000977516 0.999999 
17.4547 -8.36299 24.6697 250 250 250 0.20038 -0.974518 0.100812 
24.0201 -11.1976 2 250 250 250 -0.000977516 -0.000977516 -0.999999 
13.677 -5.62641 50.1039 250 250 250 -0.34516 -0.933409 0.0980415 
25 -9.99783 0.652885 250 250 250 -0.999999 -0.000977516 -0.000977516 
13.234 -12 9.85298 250 250 250 0.0403225 -0.832868 0.552001 
32.3051 21.7092 -1.21495 250 250 250 0.538319 0.772929 -0.335847 
3.67274 0.801129 10 250 250 250 0.000977516 0.000977516 0.999999 
12.9881 -11.4823 2 250 250 250 -0.00320704 -0.0972803 -0.995252 
11.3619 8.72458 12.3342 250 250 250 -0.446678 0.889154 0.0994173 
11.4774 12 5.87864 250 250 250 0.000977516 0.999999 0.000977516 
17.0715 6.11538 47.4858 249 249 249 0.211545 0.972604 0.0963842 
-6.92567 10.4043 9.9496 250 250 250 -0.457645 0.638691 0.618575 
21.1739 -6.17433 27.8211 249 249 249 0.659573 -0.744774 0.10136 
21.38 -2.87975 46.8092 250 250 250 0.885116 -0.454519 0.0999098 
24.1036 -4.00198 17.3773 249 249 249 0.898511 -0.427663 0.0989058 
-0.520395 -5.48936 10 250 250 250 0.000977516 0.000977516 0.999999 
18.6412 -2.69973 2 250 250 250 -0.000977516 -0.000977516 -0.999999 
30.0246 4.4578 10 250 250 250 0.000977516 0.000977516 0.999999 
23.6796 1.71506 28.8913 250 250 250 0.972879 0.2091 0.0989156 
27.6417 -23.6843 5.56796 249 249 249 -0.118544 -0.992943 0.00326268 
2.3709 12.2673 4.76019 250 250 250 0.186011 0.982547 -0.00114117 
39.3979 -7.45058 -1.5 250 250 250 -0.000977516 -0.000977516 -0.999999 
23.4088 -3.07416 27.4807 249 249 249 0.924164 -0.368849 0.0993578 
43.9931 -0.46608 6.83303 250 250 250 0.999821 -0.0189021 0.000994847 
39.9757 -13.8888 2.75328 250 250 250 0.844879 -0.534955 -0.00134749 
10.5111 -5.97395 0.00840658 250 250 250 0.277619 -0.163863 -0.946613 
7.92441 -2.74939 27.0574 250 250 250 -0.939542 -0.327436 0.100236 
25.9418 -22.8867 1.2832 249 249 249 -0.684625 -0.728884 -0.00414924 
40.9084 11.4386 -1.5 250 250 250 0.186044 0.0612145 -0.980633 
35.795 4.10266 -1.5 250 250 250 -0.000977516 -0.000977516 -0.999999 
6.76988 12 7.93941 250 250 250 0.000977516 0.999999 0.000977516 
-0.317304 -12.493 7.65317 249 249 249 -0.0209744 -0.99978 0.000998781 
1.20961 10.6773 0 250 250 250 -0.000977516 -0.000977516 -0.999999 
40.6961 -0.175801 10 250 250 250 0.000977516 0.000977516 0.999999 
34.027 14.1496 -1.5 250 250 250 -0.000977516 -0.000977516 -0.999999 
31.3358 -2.27297 -1.5 249 249 249 -0.000977516 -0.000977516 -0.999999 
30.9949 15.7503 10 250 250 250 0.000977516 0.000977516 0.999999 
25.0909 21.4434 2.61014 249 249 249 -0.968656 0.248404 0.00118853 
21.5334 -7.77518 2 250 250 250 -0.000977516 -0.000977516 -0.999999 
-10.205 5.3549 10 250 250 250 0.000977516 0.000977516 0.999999 
-3.71742 6.55501 0 250 250 250 -0.000977516 -0.000977516 -0.999999 
-0.176646 8.08281 0 250 250 250 -0.000977516 -0.000977516 -0.999999 
7.0471 -2.2695 20.0752 250 250 250 -0.962552 -0.252494 0.0986905 
10.3879 2.33061 51.5964 250 250 250 -0.913762 0.394361 0.0975596 
25 -15.5184 6.71624 250 250 250 -0.999999 -0.000977516 -0.000977516 
8.6669 6.60382 13.1623 250 250 250 -0.729606 0.676757 0.0983574 
17.8064 -8.37113 23.8009 250 250 250 0.241002 -0.965282 0.100736 
-11.2326 5.46813 7.71075 250 250 250 -0.896251 0.443546 -0.0013084 
28.2762 4.07342 10 250 250 250 0.000977516 0.000977516 0.999999 
7.41796 4.64416 14.6147 250 250 250 -0.869691 0.483792 0.0978934 
25 -15.2062 9.01657 250 250 250 -0.999917 -0.0128575 0.000989037 
-9.08231 2.29527 10 250 250 250 0.000977516 0.000977516 0.999999 
3.97048 -3.95293 0 250 250 250 -0.000977516 -0.000977516 -0.999999 
15.6811 -7.08659 39.1753 250 250 250 -0.0140756 -0.995035 0.098529 
13.0422 -7.939 26.1245 249 249 249 -0.321032 -0.941784 0.0999064 
19.4607 11.7053 10 250 250 250 0.00376314 0.342446 0.93953 
19.2471 2.28684 59.903 250 250 250 0.286175 0.192166 0.93871 
32.2598 -14.4805 10 250 250 250 0.000977516 0.000977516 0.999999 
-5.1448 -6.94911 0 249 249 249 -0.000977516 -0.000977516 -0.999999 
-6.18547 10.8563 7.41227 250 250 250 -0.497143 0.867668 0.00133282 
25.6348 -22.5499 -0.897606 250 250 250 -0.793179 -0.608975 -0.00412398 
43.7649 3.47643 0.923075 250 250 250 0.991102 0.1331 0.0011 
